ply
format ascii 1.0
comment Generated by RosVisualizer
element vertex 1942
property float x
property float y
property float z
end_header
24.6076 92.782 -1.09765
27.9524 88.5099 -1.25162
28.5881 87.6098 -1.24252
33.421 87.3575 -1.24039
24.4931 93.5877 -1.25548
28.3417 88.7373 -1.25216
28.9473 87.9862 -1.20532
29.4105 87.2408 -1.21157
27.5225 90.6962 -1.30545
29.3513 88.0826 -1.22365
26.9264 93.749 -1.23314
29.0565 89.1529 -1.24223
29.8124 87.9342 -1.1918
30.0973 86.8298 -1.201
30.3581 86.4965 -1.19456
28.1393 95.5966 -1.43013
29.4003 89.9136 -1.28145
30.2149 87.7309 -1.20401
30.436 87.1017 -1.20019
30.5037 86.5627 -1.19539
30.2315 88.6322 -1.22131
30.6288 88.243 -1.24809
30.8534 87.0762 -1.21329
29.9531 154.645 1.5386
33.8264 101.011 -1.1158
38.9229 99.4678 4.1913
24.835 97.5604 1.93534
24.0449 95.3901 -1.05217
23.5414 95.7685 -0.898831
21.5097 94.5473 -0.992189
20.8709 94.2916 -0.985993
21.0418 96.1879 0.43237
22.9628 95.8653 0.570605
21.2522 96.7833 -0.547687
24.7391 97.0536 2.26204
21.2953 94.0989 0.195743
31.8775 94.8493 -1.33719
21.2675 95.2471 0.369905
24.9949 90.8682 -1.2589
28.1393 95.5966 -1.43013
29.9531 154.645 1.5386
30.1121 94.4042 -1.34792
28.3417 88.7373 -1.25216
29.9531 154.645 1.5386
33.8264 101.011 -1.1158
38.9229 99.4678 4.1913
16.4291 96.1758 2.3194
22.2238 96.4759 2.07834
30.0152 98.3071 -0.226456
30.4302 90.0731 -1.25663
30.6695 88.8171 -1.22641
30.9936 88.0789 -1.20928
31.045 87.2672 -1.20485
31.5068 96.3374 -1.37514
31.3384 89.9614 -1.2129
31.2003 88.4532 -1.23049
31.2937 87.6721 -1.21559
31.359 87.5241 -1.19988
31.8642 89.6627 -1.24159
31.7635 88.69 -1.25103
31.6827 88.0039 -1.24617
33.2115 93.7991 -1.40826
32.324 89.7553 -1.25043
32.0991 89.2738 -1.2824
31.9996 88.0587 -1.23887
31.8737 87.4743 -1.22392
20.9117 93.6726 0.412305
23.0506 91.9802 -1.13531
24.9902 90.0426 -1.25501
33.581 92.6001 -1.38145
32.8573 90.9343 -1.26609
27.7811 87.9279 -1.20582
32.6903 89.3569 -1.25437
32.3181 88.1173 -1.22426
28.4292 87.4353 -1.21084
32.0664 87.5155 -1.22244
35.6852 97.1557 -1.1663
33.972 92.0724 -1.14371
33.4558 90.7607 -1.27649
32.9333 89.5671 -1.27889
32.4998 88.1109 -1.23498
27.3009 88.8508 -1.20951
32.4036 87.5232 -1.21724
27.5612 88.4313 -1.22065
35.6586 93.7021 -1.12015
28.9353 87.3036 -1.18801
33.8094 89.9986 -1.2149
33.4356 89.5801 -1.26813
32.7445 88.0485 -1.23712
29.192 86.9628 -1.20357
36.6151 94.8692 -1.19811
34.3111 90.554 -1.16711
33.9666 89.3706 -1.15109
22.9462 95.1637 2.65895
33.3754 88.4438 -1.23905
32.924 87.7751 -1.24512
37.8627 95.2921 -0.0923375
24.4432 92.5823 -1.13069
26.7515 89.7926 -1.24546
28.3196 88.2972 -1.22203
29.0592 87.3303 -1.19187
24.609 93.3735 -1.20389
27.8191 89.3056 -1.26291
29.3678 87.4329 -1.22297
29.7801 86.9994 -1.20438
24.3931 95.8733 0.88921
24.8372 95.2996 -1.38016
28.2724 90.1723 -1.30882
29.391 88.1859 -1.1995
29.721 87.4552 -1.21394
29.8381 87.1701 -1.20138
28.6374 90.8684 -0.112625
27.0796 93.3074 -1.33907
29.0529 89.1677 -1.22811
29.3822 88.6723 -1.22033
29.8988 87.823 -1.21656
30.3205 87.1103 -1.19937
28.2133 94.2181 -1.39079
29.399 90.016 -1.26733
30.0027 88.2732 -1.21932
30.2786 87.7375 -1.19118
30.4124 87.0951 -1.19418
29.9006 89.842 -1.25653
30.4092 88.4298 -1.22764
30.7082 87.826 -1.21171
30.8007 87.1596 -1.20429
40.6718 104.492 5.01233
21.4927 101.559 -0.861994
34.6639 117.773 4.99029
32.3229 104.788 -0.606841
36.5257 102.801 -1.10252
41.1018 103.129 4.70154
24.835 97.5604 1.93534
24.0449 95.3901 -1.05217
21.5097 94.5473 -0.992189
21.0418 96.1879 0.43237
22.9628 95.8653 0.570605
21.2522 96.7833 -0.547687
24.7391 97.0536 2.26204
21.2953 94.0989 0.195743
21.2675 95.2471 0.369905
30.1121 94.4042 -1.34792
20.9117 93.6726 0.412305
23.0506 91.9802 -1.13531
24.3931 95.8733 0.88921
24.8372 95.2996 -1.38016
40.6718 104.492 5.01233
21.4927 101.559 -0.861994
34.6639 117.773 4.99029
32.3229 104.788 -0.606841
36.5257 102.801 -1.10252
41.1018 103.129 4.70154
16.0979 97.2424 3.65933
30.5761 90.4437 -1.21675
30.7407 89.3508 -1.23188
30.8035 88.8514 -1.20938
30.9027 88.4608 -1.20905
30.6702 95.9599 -1.27759
31.106 90.6848 -1.26172
30.9838 89.6892 -1.21947
31.1763 88.7766 -1.2132
31.2138 88.4626 -1.21331
31.5914 96.185 -1.31368
31.7257 91.7373 -1.27271
31.3838 90.1108 -1.20461
20.5462 94.7016 -1.01296
31.4525 88.7747 -1.21783
20.7714 94.8471 -1.32964
25.0925 90.7626 -1.22865
32.3955 93.7703 -1.29297
32.0658 91.7532 -1.31096
27.6571 88.8549 -1.20653
31.8107 89.5555 -1.25068
31.7214 89.2577 -1.24502
31.7188 88.6683 -1.22826
34.1087 98.4787 -1.45888
32.6943 90.9147 -1.27605
18.0086 97.8139 8.50032
32.4589 89.8397 -1.22927
32.0594 89.1349 -1.23667
32.1395 88.726 -1.22957
24.5892 92.0762 -1.22581
26.9756 89.9001 -1.23252
35.1125 95.9832 -1.27365
27.6208 89.2502 -1.25317
32.8923 90.9473 -1.27368
32.7666 89.8571 -1.24484
28.3221 88.6254 -1.21434
32.4095 89.1439 -1.23384
32.2059 88.5898 -1.21764
37.5484 99.5926 -0.617887
35.9602 97.2972 -1.24584
33.9741 92.1315 -1.13246
32.9444 89.7739 -1.24725
23.4715 94.8518 2.39665
23.4298 94.9711 1.29598
32.5245 88.6683 -1.23609
37.3893 97.9576 -0.101784
21.4134 96.5579 0.143086
35.9249 94.2701 -1.19664
24.7966 92.634 -1.18734
34.0533 91.3615 -1.18767
26.8539 90.5683 -1.22269
33.4725 90.0095 -1.26102
28.1936 89.095 -1.216
33.2016 89.2954 -1.25902
28.9418 88.581 -1.21173
29.4129 88.0576 -1.21464
36.7863 95.1131 -1.23625
34.5953 91.5475 -1.17684
33.4788 89.5157 -1.23944
23.4362 95.6573 2.65701
23.8738 94.9756 2.02309
24.4955 94.0637 -1.26779
27.8884 90.341 -1.22359
28.8746 89.2495 -1.20092
29.1781 88.4926 -1.21836
29.4446 88.2024 -1.21876
24.5137 96.771 2.8177
28.4514 90.1005 -1.20126
29.1383 89.1275 -1.1966
29.4564 88.6705 -1.2155
25.9865 97.4317 -0.595321
27.8995 92.4636 -1.32263
28.9058 90.9103 -1.21662
29.429 89.8784 -1.25192
29.9274 88.6166 -1.20567
29.9952 88.2627 -1.21393
28.286 94.4594 -1.3696
29.4361 91.1 -1.2576
29.9388 89.8151 -1.24098
30.307 88.6798 -1.20844
30.4263 88.1144 -1.19762
29.439 94.3076 -1.35039
29.802 90.6713 -1.22129
30.5611 89.255 -1.22711
30.4957 88.648 -1.20779
17.3626 97.7585 8.56424
21.2012 104.415 0.524618
46.6748 282.338 -2.88942
35.5782 103.15 -1.36966
21.2012 104.415 0.524618
35.5782 103.15 -1.36966
34.6639 117.773 4.99029
24.835 97.5604 1.93534
21.5097 94.5473 -0.992189
21.0418 96.1879 0.43237
21.2522 96.7833 -0.547687
24.7391 97.0536 2.26204
21.2675 95.2471 0.369905
21.4134 96.5579 0.143086
31.6179 96.2764 -1.35771
24.7214 93.8963 -1.24977
24.0237 95.7458 3.43452
21.2369 99.3298 -0.556461
28.3413 95.0561 -1.36315
29.6147 95.6781 -1.26661
32.5474 94.0134 -1.26622
25.5361 115.327 -1.65871
30.4696 124.097 4.18324
31.166 101.199 -0.316249
32.1685 101.932 -0.390046
37.1459 100.958 -1.28135
21.554 102.079 -0.495462
27.5841 94.4395 -0.326394
30.4919 93.5944 -1.27662
30.6995 91.5794 -1.2814
30.7895 90.7465 -1.25286
30.7735 90.204 -1.22779
30.6278 96.0938 -1.3092
30.9772 93.4714 -1.2882
31.1268 91.5322 -1.2956
30.9576 90.7999 -1.24611
31.0689 90.1966 -1.23799
31.3848 92.7053 -1.31481
31.6235 92.2518 -1.29202
31.3766 90.8238 -1.25234
31.3664 90.4361 -1.24836
33.1502 101.083 -0.755804
32.5321 97.7157 -1.40117
32.0242 92.6802 -1.30772
21.1804 96.3474 -0.17281
31.7489 91.73 -1.28266
24.1414 93.2888 -1.1274
31.7235 90.9067 -1.26082
28.7918 89.8976 -1.23782
31.6709 90.3717 -1.2472
23.2051 95.0458 1.45419
27.0858 91.7197 -1.28711
33.9267 99.9315 -1.47549
28.0644 90.714 -1.25992
28.4837 90.3107 -1.23888
28.9168 89.892 -1.25035
32.0732 91.6363 -1.29487
23.5066 95.8988 4.08389
24.5847 95.0884 2.22704
31.8811 90.8915 -1.27218
24.2597 95.6483 1.42055
23.5796 95.9426 0.623615
31.8043 90.4647 -1.25221
24.0366 95.2594 -1.195
26.8184 92.8996 -1.27806
27.8752 91.4536 -1.30162
28.9615 90.1884 -1.23706
29.4276 89.848 -1.2236
24.1692 97.1681 3.67285
35.1781 98.6893 -1.36711
24.9459 95.4873 2.40325
33.1283 93.2442 -1.30706
24.6055 95.8804 1.32646
32.6923 91.9774 -1.28793
23.6005 96.9487 0.435773
21.227 99.8937 -0.59875
24.8003 95.9117 -1.23064
26.9522 92.9868 -1.27704
32.3035 91.0768 -1.2726
28.8261 91.0555 -1.26897
28.9768 90.506 -1.2633
29.446 90.1893 -1.25955
32.1092 90.7111 -1.28134
25.29 96.9532 -1.32792
28.0937 93.082 -1.33563
28.9527 91.1826 -1.24362
29.4583 90.6002 -1.25554
29.7286 90.0013 -1.24206
35.8021 97.7326 -1.21172
26.8058 95.6543 -1.31165
28.4625 93.0791 -1.31431
29.4318 91.2911 -1.27472
29.7404 90.7695 -1.24434
33.3942 93.3226 -1.23066
30.057 90.0346 -1.24492
29.4469 92.5725 -1.34953
33.3663 92.5964 -1.35927
29.408 91.9409 -1.31956
30.1544 90.5753 -1.25373
32.5584 91.1101 -1.26524
32.5218 90.7323 -1.27001
29.418 94.6538 -1.29223
29.4864 93.2133 -1.29577
35.9233 96.8976 -1.24208
30.2634 91.6404 -1.26929
34.7177 94.357 -1.2646
30.4994 90.709 -1.2626
33.4972 91.9842 -1.29246
30.4361 90.2676 -1.24711
32.9009 91.3419 -1.29602
32.7167 90.8922 -1.2944
16.7499 99.6942 8.27948
17.6571 100.773 8.02401
18.1387 101.585 10.3656
37.1271 105.706 -1.34281
24.4318 125.767 -0.614001
21.554 102.079 -0.495462
21.2522 96.7833 -0.547687
21.2369 99.3298 -0.556461
33.1502 101.083 -0.755804
32.5321 97.7157 -1.40117
23.5066 95.8988 4.08389
24.0366 95.2594 -1.195
21.227 99.8937 -0.59875
24.5847 95.0884 2.22704
16.7499 99.6942 8.27948
17.6571 100.773 8.02401
18.1387 101.585 10.3656
37.1271 105.706 -1.34281
29.7129 96.355 -1.38518
29.8827 94.253 -1.3076
30.2083 93.1628 -1.31367
17.1833 98.855 7.79249
30.556 92.2552 -1.30277
30.4943 92.0883 -1.30092
30.6133 96.1744 -1.26059
30.5555 94.9879 -1.31631
30.4967 93.7297 -1.30602
30.6527 92.4395 -1.28966
30.79 91.8977 -1.28645
31.151 96.4928 -1.32212
31.2372 94.6156 -1.34587
30.9851 93.4444 -1.28848
31.007 92.3643 -1.29908
31.0985 92.0555 -1.29907
23.7918 95.0208 2.83438
23.6705 95.0096 1.87342
32.4329 104.972 -0.492244
31.4712 96.0361 -1.23999
31.4396 95.9775 -1.36027
21.1749 96.5212 0.0455655
31.2973 93.3765 -1.32252
21.2587 96.2002 -1.15588
31.3534 92.6582 -1.2829
25.1348 93.5534 -1.29737
31.3006 92.14 -1.29642
20.0701 96.9161 -4.99809
31.8308 94.4387 -1.34146
23.9318 95.2182 2.53109
31.7573 93.5835 -1.33709
24.0764 95.1519 1.39703
31.5136 92.5868 -1.29662
31.5912 92.213 -1.32711
23.6409 95.9034 -0.634342
26.9535 93.0261 -1.28016
27.5741 92.3367 -1.3057
32.4804 94.6558 -1.33023
28.0409 92.0724 -1.28272
32.2835 93.468 -1.35543
32.059 92.7601 -1.352
31.9443 92.4683 -1.30742
24.8287 95.6756 3.54297
24.4178 96.3425 2.93536
34.1077 97.5146 -1.25751
33.6134 96.7205 -1.40861
25.0532 95.1738 1.97966
32.6027 94.1542 -1.30482
24.8925 95.332 0.929254
32.1812 92.8161 -1.31981
24.0738 96.0688 0.738282
32.0458 92.2235 -1.29782
24.5861 95.4783 -1.23506
27.1969 93.116 -1.2895
37.2809 103.841 -1.26619
35.8633 100.147 -1.25944
27.7033 92.6985 -1.31123
34.0995 96.0401 -1.25958
28.3943 92.0758 -1.28033
32.994 94.0171 -1.33918
32.5657 93.1724 -1.3189
32.287 92.2963 -1.3124
35.8905 99.2434 -1.26652
24.1144 97.0392 3.57001
24.5679 96.5295 2.10564
33.1672 93.683 -1.35051
24.1364 97.2532 1.65868
24.6318 96.4059 0.691844
24.7603 96.4368 -1.23643
27.0641 94.2901 -1.31634
28.0745 93.1335 -1.34093
28.8448 91.8581 -1.29766
25.256 97.1173 -1.33679
27.4399 94.2232 -1.30643
28.5606 93.0049 -1.2947
29.4034 91.9447 -1.28372
25.2684 99.0202 -1.37405
28.5246 93.9423 -1.30393
29.0037 93.2762 -1.30506
29.5638 92.0799 -1.29164
29.7503 91.6563 -1.27149
27.3832 98.2372 -0.400991
27.3743 97.1835 -1.41004
28.4626 94.7855 -1.31889
29.4743 93.0051 -1.30134
29.7548 92.0858 -1.28597
30.1227 91.7001 -1.29802
28.3314 98.1559 -1.42309
29.522 93.9498 -1.34488
29.8536 92.7505 -1.28846
30.0799 92.4062 -1.29097
24.4318 125.767 -0.614001
18.4787 119.143 1.22753
24.0618 108.921 -0.971018
16.8965 101.55 9.95038
34.7358 102.503 -0.308552
21.2168 103.781 0.840627
22.5723 103.293 -1.14473
21.2522 96.7833 -0.547687
21.2369 99.3298 -0.556461
24.0366 95.2594 -1.195
21.227 99.8937 -0.59875
29.7129 96.355 -1.38518
31.4712 96.0361 -1.23999
31.4396 95.9775 -1.36027
21.1749 96.5212 0.0455655
24.1364 97.2532 1.65868
28.3314 98.1559 -1.42309
23.5066 95.8988 4.08389
24.4318 125.767 -0.614001
18.4787 119.143 1.22753
24.0618 108.921 -0.971018
16.8965 101.55 9.95038
34.7358 102.503 -0.308552
21.2168 103.781 0.840627
22.5723 103.293 -1.14473
29.6405 97.1249 -1.35339
30.185 94.0501 -1.33717
30.2136 93.1529 -1.313
30.4627 92.9295 -1.30566
29.6156 99.4147 -1.38164
30.5105 96.3643 -1.3664
30.6221 94.3411 -1.33677
30.4995 93.1607 -1.30388
30.6527 92.8759 -1.30725
30.9253 98.2238 -1.26202
30.995 96.1986 -1.39645
23.7696 95.7605 3.58843
30.9282 94.4484 -1.334
23.7254 95.5355 2.69629
30.9741 93.5129 -1.28514
23.9081 95.227 1.99764
24.2793 95.2908 1.19237
30.8731 93.1119 -1.31598
24.0378 95.4927 0.170116
22.0981 96.3592 -0.291402
32.3465 105.068 -1.41439
32.2229 100.019 -1.41575
24.8561 94.5662 -1.22845
31.1751 94.683 -1.31252
27.0792 93.2537 -1.28318
31.2759 93.3799 -1.32093
31.1369 92.8986 -1.30295
32.8658 101.677 -0.278823
32.3704 98.2705 -1.40018
17.9464 101.297 8.39075
32.0456 95.9269 -1.35239
31.8115 94.4011 -1.34089
24.151 95.7234 3.48443
31.5334 93.4643 -1.32191
24.9862 95.1517 2.14481
31.4204 92.9574 -1.3158
32.335 96.1736 -1.37178
24.9402 95.2846 1.97692
24.8298 95.1781 0.789514
31.9454 94.2849 -1.33117
31.8765 94.0199 -1.33702
24.1432 95.8652 0.646171
31.6198 93.0883 -1.32774
34.5911 101.339 -0.835408
21.6471 98.4417 -0.243222
35.4807 102.731 -1.38037
24.8003 95.3935 -1.26354
33.6673 97.8578 -1.46342
25.0748 94.9388 -1.29137
32.8004 95.1269 -1.33277
32.165 93.8269 -1.35286
27.921 92.777 -1.30752
32.0353 93.3866 -1.33239
28.4161 92.3293 -1.2911
24.498 96.379 3.57757
35.8226 101.428 -1.27945
24.4781 96.4686 2.99774
33.6027 96.4491 -1.40185
32.7955 94.5335 -1.34386
24.6654 96.2299 2.18748
32.4702 93.8999 -1.34906
32.279 93.4326 -1.3382
24.4256 96.4306 0.605274
24.7802 96.1539 -1.28289
26.7042 94.282 -1.28818
34.1279 96.6829 -1.28858
28.8618 92.4114 -1.30216
21.6131 101.456 0.0617818
21.6207 101.496 -0.634147
24.352 97.588 -1.25305
27.3729 94.3024 -1.33174
27.8871 93.5937 -1.3362
28.7126 92.8304 -1.31376
29.1852 92.441 -1.29914
21.4267 102.312 -0.678582
24.6737 98.7881 -1.31911
27.959 94.3138 -1.30035
28.7669 93.3455 -1.30649
29.0357 92.8521 -1.3082
29.4873 92.4677 -1.30404
26.8766 97.6222 -1.32351
28.5237 94.4598 -1.34177
28.8311 93.8945 -1.30746
29.4026 92.8767 -1.27818
29.7274 92.5991 -1.29372
27.0172 98.7121 -1.46723
28.2784 95.8105 -1.35909
29.4884 93.7179 -1.30946
29.4759 93.238 -1.31411
29.8925 92.69 -1.31536
29.4064 94.7676 -1.32408
29.7623 93.713 -1.32041
30.0187 93.2983 -1.31241
30.1734 92.6567 -1.30241
26.1428 109.834 -1.46413
24.0618 108.921 -0.971018
21.2168 103.781 0.840627
28.3314 98.1559 -1.42309
24.4318 125.767 -0.614001
29.6405 97.1249 -1.35339
29.6156 99.4147 -1.38164
30.5105 96.3643 -1.3664
32.3465 105.068 -1.41439
32.2229 100.019 -1.41575
32.8658 101.677 -0.278823
32.3704 98.2705 -1.40018
34.5911 101.339 -0.835408
35.4807 102.731 -1.38037
21.4267 102.312 -0.678582
28.2784 95.8105 -1.35909
18.0332 102.326 9.11324
29.3872 99.3994 -1.30188
29.9738 94.8221 -1.31698
30.0911 94.1992 -1.31825
30.3191 93.7956 -1.32657
30.3679 95.2381 -1.34724
30.4586 94.3736 -1.33296
30.4915 93.9023 -1.31888
30.6417 102.47 -1.47202
30.8676 96.1273 -1.34715
30.6898 95.2107 -1.32478
30.8952 94.4085 -1.34484
30.7872 93.9083 -1.32788
31.6993 103.517 -1.52944
31.1061 96.7954 -1.34428
31.4099 96.0613 -1.39634
31.1436 94.5546 -1.33412
31.0486 93.9385 -1.32574
31.4947 96.0455 -1.36959
31.4236 94.6663 -1.32686
31.2674 94.1116 -1.33983
33.3123 101.602 -0.867491
33.7305 102.485 -1.35796
32.5601 97.7731 -1.42133
32.0846 96.0228 -1.38385
31.6276 94.5617 -1.3426
31.5756 94.285 -1.35009
32.6695 96.5871 -1.33375
32.6308 96.0893 -1.35555
31.9009 94.7834 -1.34198
31.9442 94.3323 -1.3362
37.1715 106.237 -0.382294
33.6188 97.7147 -1.42623
32.4927 95.457 -1.34207
32.3283 94.9528 -1.36336
24.1808 96.4192 3.69282
32.0024 94.2956 -1.35072
24.6112 95.9264 2.6596
24.796 95.6914 2.32199
24.6564 95.9672 1.83266
24.9655 95.8166 1.1941
24.4825 95.9665 0.610971
21.6593 97.796 -0.62576
21.13 98.4993 -1.23694
24.8964 95.7422 -1.24181
26.9549 94.3157 -1.33096
24.1693 96.6484 3.81579
24.4386 96.7185 3.034
24.063 96.819 2.69234
24.9905 96.016 1.53353
24.6475 96.3936 1.08304
21.6543 98.5766 -0.158043
21.5757 98.7981 -1.23096
25.2999 96.1384 -1.33608
27.3979 94.08 -1.31679
28.0807 93.6511 -1.33046
28.2977 93.3879 -1.3067
24.9845 97.1404 2.35341
21.6853 100.255 0.277114
21.1285 100.768 -1.15257
24.3881 97.5197 -1.3046
26.8851 95.2282 -1.33075
27.2163 94.7722 -1.34726
28.1108 94.1092 -1.33952
28.7131 93.4517 -1.31952
21.513 101.586 0.0565727
24.5384 98.2742 -1.29443
26.7198 95.9226 -1.33763
27.9519 94.8382 -1.3252
28.5237 93.9885 -1.30844
28.9816 93.6071 -1.31561
21.3798 104.241 -1.2331
24.9066 99.109 -1.29074
27.8014 95.7466 -1.34808
28.4697 94.832 -1.33324
28.8354 93.9572 -1.31679
29.1132 93.6765 -1.304
22.2017 104.586 -1.01595
26.6796 97.9631 -1.39269
28.7547 94.6431 -1.34283
29.2567 93.9402 -1.31267
29.482 93.5922 -1.31297
27.6276 98.962 -1.48335
28.4706 96.339 -1.37838
29.3814 94.849 -1.33744
29.6162 94.0427 -1.34439
29.7501 93.7157 -1.30781
29.5093 95.7662 -1.34041
29.4979 95.2792 -1.37024
29.8735 94.2958 -1.30551
26.1428 109.834 -1.46413
24.4318 125.767 -0.614001
32.3465 105.068 -1.41439
32.2229 100.019 -1.41575
32.8658 101.677 -0.278823
35.4807 102.731 -1.38037
21.4267 102.312 -0.678582
30.6417 102.47 -1.47202
31.6993 103.517 -1.52944
21.13 98.4993 -1.23694
26.6796 97.9631 -1.39269
28.3045 102.526 -1.43911
29.5838 97.908 -1.38728
29.8141 96.2176 -1.3388
30.1524 95.3755 -1.3341
30.0149 95.12 -1.32274
29.5146 106.383 -1.46068
29.5459 101.084 -1.48671
30.0766 97.0981 -1.34523
30.0893 96.187 -1.35457
30.3262 95.3272 -1.31034
30.4031 95.2312 -1.33032
30.6515 98.3853 -1.34438
30.7456 96.2054 -1.32777
30.6928 95.4951 -1.35216
30.5595 95.1253 -1.32466
31.111 97.763 -1.37705
31.062 96.3814 -1.35756
30.9 96.0494 -1.36752
30.9418 95.0811 -1.33597
32.5704 105.225 -0.356787
31.9374 98.3375 -1.37907
31.5084 96.5574 -1.32779
24.2981 97.0055 3.3935
24.184 97.0079 2.95802
31.2888 96.0964 -1.39413
31.1101 95.1502 -1.33059
25.0682 96.7412 1.97283
21.7918 99.162 2.18656
32.9144 101.396 -1.23942
32.3808 98.2124 -1.37354
24.6811 96.8034 0.859904
31.8623 96.7247 -1.3614
31.4965 96.0435 -1.36336
21.3147 99.2094 0.485298
31.5108 95.5465 -1.35197
33.3595 99.9769 0.505896
33.5763 100.982 -0.770731
21.6032 99.0845 -0.565547
33.9578 101.572 -1.20549
32.602 98.0975 -1.39809
21.6113 99.3655 -1.17903
31.9478 96.4319 -1.34867
25.1536 96.3105 -1.31385
32.0046 96.2334 -1.36366
31.7201 95.3234 -1.35787
33.9417 100.358 -0.176493
33.1928 98.7022 -1.41409
32.6032 96.6909 -1.3922
32.1372 96.0606 -1.35883
24.8511 97.166 1.02219
20.9051 100.547 0.87157
32.7085 96.7371 -1.36811
32.3561 95.9935 -1.3776
21.4656 100.054 -0.931355
21.5406 99.6602 -1.16808
26.3065 96.3047 -1.32849
26.7275 95.8998 -1.32191
21.2585 101.143 0.0635203
21.5193 101.679 -0.60891
24.6194 98.1811 -1.2691
25.3948 97.2657 -1.42262
27.5201 95.7305 -1.33582
27.923 95.2112 -1.3234
21.5604 102.978 0.388233
24.9378 98.7698 -1.28631
27.0291 96.3863 -1.32794
27.7974 95.758 -1.33079
28.4613 94.9448 -1.32117
29.012 94.5461 -1.3127
21.6658 103.86 0.582821
25.3233 99.3111 -1.3788
28.2706 95.8417 -1.34068
28.6168 95.143 -1.30339
29.0362 94.6341 -1.31349
25.0551 102.171 -1.46456
27.9252 97.4379 -1.4204
28.846 95.7497 -1.33383
29.2449 95.0981 -1.30742
29.3951 94.8278 -1.30665
26.4316 102.548 -1.43791
28.5121 96.7599 -1.37444
29.0923 96.0248 -1.32004
29.5187 95.2509 -1.32635
29.5383 94.9382 -1.33568
27.5149 102.171 -1.38001
28.4458 98.2259 -1.44583
29.5228 96.0942 -1.34107
29.5648 95.4058 -1.33574
29.9545 94.8923 -1.32209
21.3869 105.568 -1.43715
24.9968 107.109 -1.0909
26.1428 109.834 -1.46413
32.3465 105.068 -1.41439
32.2229 100.019 -1.41575
32.8658 101.677 -0.278823
35.4807 102.731 -1.38037
30.6417 102.47 -1.47202
31.6993 103.517 -1.52944
29.5146 106.383 -1.46068
21.6113 99.3655 -1.17903
21.5604 102.978 0.388233
21.3869 105.568 -1.43715
24.9968 107.109 -1.0909
28.4156 102.568 -1.43294
29.4437 98.2123 -1.34719
29.5936 97.8524 -1.36472
29.8954 96.5925 -1.33859
30.0187 96.3046 -1.34333
29.5783 101.486 -1.46679
29.6333 99.3796 -1.36865
29.9547 97.3941 -1.38056
30.1846 96.7344 -1.34084
30.1714 96.3237 -1.33141
30.4571 98.8691 -1.38559
30.4238 97.8617 -1.32801
30.3424 96.9342 -1.35272
30.5443 96.4371 -1.32204
30.9261 98.8374 -1.39753
30.8011 97.981 -1.36466
30.7941 96.7896 -1.33313
21.2982 100.13 0.399795
30.7963 96.6054 -1.3204
21.5048 100.353 -0.667793
21.5096 99.9733 -1.01098
32.3741 104.511 -0.514474
31.3437 99.7126 -1.41993
24.6057 98.1608 -1.29887
31.1082 97.7236 -1.35673
26.8807 96.53 -1.33852
30.9706 96.8948 -1.33115
27.4416 96.0759 -1.30559
32.6947 101.826 -1.165
21.4376 101.025 0.0630736
31.6663 98.2623 -1.38225
31.2302 96.8563 -1.32695
20.7563 101.676 -0.546628
21.2571 101.108 -1.21261
31.245 96.5652 -1.32993
25.2163 98.1585 -1.38226
27.1918 96.6315 -1.3283
33.1989 100.891 -0.796858
32.5538 99.1898 -1.37182
27.7762 96.175 -1.32335
32.3123 98.8423 -1.43938
27.9815 95.7614 -1.32055
31.5619 97.11 -1.3609
31.5257 96.6282 -1.32552
35.3986 105.273 0.0893864
33.8071 101.277 -0.305185
21.7842 101.905 -0.620985
33.9646 101.459 -1.20705
32.6567 99.0785 -1.38474
24.4362 99.6229 -1.26648
32.4019 98.2541 -1.39071
25.2071 98.8104 -1.36255
32.0762 97.5135 -1.36138
27.4353 96.9005 -1.32709
27.9962 96.224 -1.32994
28.1686 95.9898 -1.3255
32.5955 98.0532 -1.38781
21.3781 103.878 0.431118
22.0182 103.1 -0.238707
24.8804 99.9477 -1.30994
26.9353 97.7815 -1.34559
27.387 97.1153 -1.33451
28.2489 96.296 -1.31646
28.7384 95.8856 -1.31922
24.9161 101.812 -1.33168
27.1906 98.3362 -1.36512
27.7568 97.3204 -1.39481
28.5431 96.4269 -1.31884
28.9415 96.0779 -1.32943
21.2526 107.875 -1.56339
25.1167 103.17 -1.49451
27.7969 98.5661 -1.37569
28.2172 97.5448 -1.34812
28.8291 96.5061 -1.33315
29.1899 95.935 -1.3225
25.8696 103.081 -1.5495
28.0751 99.2108 -1.4251
28.9706 97.3474 -1.35938
29.128 96.5012 -1.32858
29.4348 96.0914 -1.33182
27.6744 102.612 -1.45621
28.6692 98.6997 -1.33776
29.0395 97.6283 -1.35502
29.6102 96.7571 -1.3445
29.7675 96.1966 -1.33054
35.5475 112.616 2.60442
35.4823 115.192 0.0189175
22.5751 135.391 -0.302232
25.8406 109.201 -0.952888
26.1428 109.834 -1.46413
21.3869 105.568 -1.43715
32.3465 105.068 -1.41439
32.8658 101.677 -0.278823
31.6993 103.517 -1.52944
21.5604 102.978 0.388233
28.4156 102.568 -1.43294
21.2571 101.108 -1.21261
21.7842 101.905 -0.620985
24.4362 99.6229 -1.26648
21.3781 103.878 0.431118
26.4316 102.548 -1.43791
35.5475 112.616 2.60442
35.4823 115.192 0.0189175
22.5751 135.391 -0.302232
25.8406 109.201 -0.952888
29.322 99.8295 -1.37219
29.4335 98.1989 -1.34653
29.5798 97.8231 -1.3549
29.5751 103.228 -1.52726
29.603 99.4427 -1.39221
29.7413 98.8644 -1.37155
30.008 97.6294 -1.35163
29.9509 97.1975 -1.33942
29.7168 106.475 -1.5833
30.1135 100.623 -1.38669
30.267 98.5843 -1.36145
30.195 98.0798 -1.37014
30.2046 97.328 -1.33771
31.822 106.578 -1.53631
30.6153 99.6333 -1.39093
30.6911 98.4843 -1.35101
30.5683 98.333 -1.37852
30.6293 97.3976 -1.34546
32.3567 104.427 -0.506702
31.3219 99.7304 -1.35399
30.9235 98.7678 -1.38456
30.8252 97.9935 -1.36178
30.8641 97.5152 -1.35331
32.493 103.599 -1.29604
31.7848 100.284 -1.42904
31.8108 99.8332 -1.46229
31.1858 98.0076 -1.36656
31.0886 97.7389 -1.35434
32.8586 101.944 0.0238443
21.2662 101.612 0.470289
32.7213 101.877 -1.16753
32.7115 101.152 -1.26708
32.2292 99.7418 -1.44421
31.6679 98.3194 -1.40766
31.4429 97.8763 -1.39276
21.2678 101.137 -0.085381
33.1067 101.138 -0.319395
33.0072 100.567 -0.734442
25.2574 98.2359 -1.30815
32.0006 98.9455 -1.4065
31.9926 98.4194 -1.4187
25.4432 98.1215 -1.37979
31.6295 97.7654 -1.37714
27.1515 97.0388 -1.32889
27.5525 96.8519 -1.32711
32.2556 98.6887 -1.38537
21.1627 102.056 0.366435
25.1951 98.7662 -1.34931
26.8959 97.7854 -1.35186
27.3394 97.1224 -1.32982
27.8785 96.8266 -1.34448
21.4606 103.328 -0.23345
24.1855 100.458 -1.2503
26.0859 98.9091 -1.36215
27.111 97.8942 -1.3527
27.8519 97.1775 -1.32091
28.1951 96.9553 -1.32658
24.8941 100.684 -1.3091
26.8942 98.6543 -1.34893
27.1642 98.3344 -1.37455
28.0251 97.2461 -1.34447
28.4917 96.9432 -1.33086
20.9124 108.002 -0.676722
24.9352 101.787 -1.32426
27.4979 98.9081 -1.39055
28.1415 97.9046 -1.35258
28.4136 97.4294 -1.33597
28.8689 96.8997 -1.33435
24.8582 103.946 -1.36407
27.8625 99.0324 -1.36354
28.3002 98.2826 -1.33673
28.687 97.3174 -1.33986
24.234 109.013 -1.26135
27.8021 99.7825 -1.39849
28.717 98.0482 -1.34332
29.0302 97.5574 -1.34284
29.341 97.0491 -1.34094
27.0407 103.218 -1.43515
28.3646 100.653 -1.42866
29.0931 98.1596 -1.3319
29.4976 97.5631 -1.3392
29.5322 97.3047 -1.33916
26.1428 109.834 -1.46413
35.5475 112.616 2.60442
22.5751 135.391 -0.302232
25.8406 109.201 -0.952888
21.3869 105.568 -1.43715
32.3465 105.068 -1.41439
31.6993 103.517 -1.52944
21.5604 102.978 0.388233
28.4156 102.568 -1.43294
21.2571 101.108 -1.21261
21.3781 103.878 0.431118
21.4606 103.328 -0.23345
24.234 109.013 -1.26135
26.4316 102.548 -1.43791
21.1627 102.056 0.366435
36.7004 107.745 1.65929
29.1157 101.132 -1.37965
29.2862 99.8843 -1.38251
29.5513 98.5152 -1.35619
29.5336 98.0296 -1.36209
29.3751 106.968 -1.55056
29.5608 100.817 -1.42023
29.5749 99.3959 -1.38348
29.8113 98.4883 -1.35025
29.901 98.2633 -1.34629
30.0718 107.328 -1.62161
30.0997 100.622 -1.37963
30.1896 99.7601 -1.379
30.1254 98.769 -1.3544
21.7773 101.928 -0.600422
21.446 102.053 -1.21994
25.1718 99.2217 -1.3002
26.2668 98.5838 -1.3449
31.6385 111.962 -1.72676
31.0399 106.791 -1.54359
21.2602 103.052 -1.23212
24.8958 99.9163 -1.29877
30.7412 102.105 -1.44303
26.7549 98.3804 -1.32881
27.3351 98.1689 -1.34381
30.4032 100.264 -1.41328
27.6842 97.7696 -1.33343
30.4474 98.7088 -1.37904
21.539 103.693 -0.248901
24.3563 101.287 -1.29861
26.2186 99.695 -1.37812
26.8659 98.6758 -1.34679
27.8102 97.9945 -1.33642
27.9982 97.891 -1.3354
31.6306 102.741 -1.52189
24.8954 101.426 -1.32495
25.498 100.894 -1.42744
30.8096 99.5902 -1.39785
27.4488 98.775 -1.35436
27.9524 98.1951 -1.34589
28.3851 97.8232 -1.34103
30.7929 98.8321 -1.38372
21.845 107.004 -1.45173
30.6743 98.3647 -1.36078
24.381 102.944 -1.32903
27.2514 99.9715 -1.37736
27.7423 98.7549 -1.37157
28.2594 98.3106 -1.3398
34.7015 113.588 4.32556
32.6247 104.981 -0.356924
31.843 102.508 -1.46681
31.3455 99.8961 -1.39762
30.9059 98.8686 -1.37111
26.9761 100.823 -1.37287
27.722 99.5048 -1.37495
30.9257 98.4206 -1.36466
32.7322 103.144 -0.41941
32.5733 101.889 -1.02474
32.5606 102.41 -1.45674
28.6114 98.3107 -1.3686
31.7878 100.217 -1.42602
31.4848 99.1485 -1.4015
28.8197 97.8906 -1.33941
31.1845 98.4333 -1.36896
33.4155 103.171 0.197294
32.7286 101.912 -1.37379
31.8471 99.7822 -1.41864
31.7201 99.2516 -1.39693
31.5108 98.7843 -1.3764
27.0685 102.282 -1.37085
28.0629 100.235 -1.38866
28.3184 99.5608 -1.37148
28.7862 98.4343 -1.33876
32.245 99.9207 -1.42651
29.0424 97.8928 -1.34352
27.7791 102.737 -1.48843
28.1801 101.158 -1.44811
28.9745 99.0305 -1.36349
29.2047 98.3825 -1.34662
36.2883 113.937 1.12465
30.5884 112.93 -0.825392
20.8177 110.167 -1.4356
26.1428 109.834 -1.46413
20.8177 110.167 -1.4356
22.5751 135.391 -0.302232
25.8406 109.201 -0.952888
21.3869 105.568 -1.43715
28.4156 102.568 -1.43294
21.4606 103.328 -0.23345
24.234 109.013 -1.26135
29.3751 106.968 -1.55056
31.6385 111.962 -1.72676
31.0399 106.791 -1.54359
28.1081 104.872 -1.39708
31.9288 106.475 -1.55197
34.4874 113.652 2.01272
32.4465 105.216 -1.46492
21.5195 103.929 -1.20764
25.3012 106.474 -1.49054
31.9338 103.468 -1.52795
20.0727 113.775 -0.258878
20.8863 112.946 -0.259292
25.8381 112.714 -1.58799
32.8819 114.439 2.11074
34.0999 114.568 -1.69724
33.8605 112.318 3.84535
36.9442 114.222 4.31702
28.5179 102.66 -1.42924
29.0942 101.23 -1.39872
29.2926 100.291 -1.36731
29.3165 99.8768 -1.39246
28.6433 105.939 -1.52009
29.1801 102.186 -1.45234
29.5855 101.178 -1.3997
29.5741 100.709 -1.40318
29.6633 100.035 -1.39161
29.6255 103.263 -1.45018
21.6437 102.889 -1.14907
29.9711 101.141 -1.41223
29.8413 100.517 -1.38024
29.8405 100.073 -1.39684
30.2125 102.652 -1.43832
30.1233 101.219 -1.408
30.0991 100.683 -1.38679
30.2395 100.066 -1.38607
21.4355 103.556 0.294282
21.4921 103.69 -1.10465
24.0292 101.805 -1.29429
30.8682 102.387 -1.4186
25.9002 100.27 -1.37885
30.7921 101.431 -1.42152
30.46 100.538 -1.40354
30.4396 100.345 -1.39196
34.5697 114.966 7.12107
21.1826 104.713 -0.171089
32.4259 105.494 -1.25821
31.68 103.13 -1.50276
24.9709 101.35 -1.28768
31.0673 102.068 -1.44885
25.5759 100.814 -1.38617
30.7166 100.832 -1.40737
27.1114 99.8076 -1.37756
30.5918 100.294 -1.39669
35.8885 113.378 4.57953
35.927 113.212 3.68357
36.0944 115.591 0.964226
24.8399 102.415 -1.37024
26.5698 100.573 -1.38048
31.7762 102.538 -1.49671
27.5059 99.8771 -1.37324
31.0238 100.681 -1.39903
30.8559 100.322 -1.40725
32.7379 103.557 0.0390082
21.4306 107.703 -1.32756
31.7803 101.976 -1.53449
24.962 103.275 -1.33139
26.2595 101.614 -1.39069
27.1118 100.823 -1.41995
32.8335 103.319 0.0591627
27.7674 99.9774 -1.38549
27.8373 99.6524 -1.38618
24.7861 104.465 -1.35461
26.1366 102.467 -1.40374
27.295 101.083 -1.39091
28.1369 100.026 -1.36366
28.4106 99.6127 -1.36397
22.0756 110.949 -0.610883
24.6524 106.247 -1.40106
26.7475 102.376 -1.37452
27.8056 100.912 -1.40293
28.3079 99.9502 -1.39047
28.4243 99.7822 -1.37078
27.6753 102.516 -1.42544
28.2098 101.056 -1.42379
28.7549 100.212 -1.37397
28.9484 99.6472 -1.37014
27.4078 105.899 -1.45573
28.7072 100.782 -1.39448
29.0325 100.073 -1.36116
33.88 115.785 -1.62558
26.1428 109.834 -1.46413
20.0727 113.775 -0.258878
25.8381 112.714 -1.58799
32.8819 114.439 2.11074
36.9442 114.222 4.31702
25.8406 109.201 -0.952888
21.3869 105.568 -1.43715
24.234 109.013 -1.26135
31.6385 111.962 -1.72676
34.4874 113.652 2.01272
32.4465 105.216 -1.46492
21.1826 104.713 -0.171089
35.927 113.212 3.68357
33.88 115.785 -1.62558
28.2422 106.72 -1.4991
28.593 104.22 -1.48257
28.6734 102.712 -1.46697
21.4862 104.838 -1.28682
29.0854 101.519 -1.42337
24.8672 102.088 -1.3598
29.1047 101.242 -1.42307
25.8519 101.514 -1.4192
28.5118 109.616 -1.61018
29.1591 103.704 -1.47319
26.5089 100.978 -1.42276
29.3168 102.998 -1.50908
29.3143 101.509 -1.4335
29.4632 101.329 -1.42371
21.2808 105.23 -0.147397
29.359 107.406 -1.5642
29.6542 104.169 -1.47098
25.0431 102.49 -1.33036
29.625 102.179 -1.41677
26.3799 101.433 -1.42025
29.6327 101.873 -1.44575
27.0703 100.948 -1.41935
29.681 101.114 -1.43821
27.1533 100.777 -1.43298
30.5283 107.144 -1.54927
30.1834 103.779 -1.50103
21.1075 106.914 -1.36944
30.2153 102.683 -1.47578
25.2486 102.934 -1.42096
29.9216 101.776 -1.4178
26.3778 101.859 -1.4274
27.1606 101.148 -1.40232
30.021 101.183 -1.42908
27.5337 100.877 -1.42106
31.1158 107.007 -1.56226
30.6949 104.001 -1.52234
30.6841 103.017 -1.45883
30.453 102.144 -1.45391
21.3206 107.519 -0.555649
30.1386 101.239 -1.44768
21.3621 107.489 -1.51744
25.2376 103.79 -1.48945
26.7162 102.304 -1.42713
34.2768 114.153 4.77217
27.5811 101.057 -1.43895
34.196 114.779 3.92276
27.7302 100.817 -1.41572
31.9579 106.561 -1.60723
31.2209 103.924 -1.5337
30.761 102.599 -1.4977
30.7618 102.119 -1.49193
21.0122 109.824 -1.41919
23.9608 105.894 -1.36979
30.5635 101.423 -1.45458
26.1514 103.819 -1.46351
27.4761 101.799 -1.43694
34.498 113.112 4.68218
27.7911 101.119 -1.42814
35.5329 113.346 2.93599
35.5884 113.605 1.14101
35.3806 113.611 0.742972
35.6505 114.82 -0.873852
32.3594 105.321 -0.960828
24.8833 106.61 -1.40969
32.077 104.787 -1.49972
27.2377 102.827 -1.43137
31.1473 102.734 -1.47354
27.447 102.603 -1.47788
28.1495 101.186 -1.42679
31.0392 102.428 -1.46414
28.2559 101.002 -1.42602
30.8016 101.424 -1.45632
23.9001 110.832 -0.393874
25.1986 108.402 -1.5316
27.1692 103.64 -1.45704
36.4908 113.735 5.30227
27.9135 102.526 -1.44901
28.403 101.335 -1.43922
28.5279 101.048 -1.42199
36.2682 113.218 2.88635
25.9233 109.622 -1.65538
27.8697 103.649 -1.46427
28.3129 102.529 -1.45464
28.7361 101.449 -1.42118
33.4588 106.977 -0.780598
28.8908 101.157 -1.44481
32.5101 105.167 -1.18114
31.9943 103.533 -1.59605
31.4286 102.456 -1.47478
37.2244 113.911 3.25839
35.7603 110.862 -0.959395
31.8324 102.947 -1.49582
23.7949 119.178 9.7732
24.2161 114.804 10.2215
25.8914 117.709 0.477456
28.9169 107.487 -0.2574
21.2373 116.871 7.41569
26.1428 109.834 -1.46413
33.88 115.785 -1.62558
25.8381 112.714 -1.58799
32.8819 114.439 2.11074
36.9442 114.222 4.31702
24.234 109.013 -1.26135
31.6385 111.962 -1.72676
34.4874 113.652 2.01272
32.4465 105.216 -1.46492
35.927 113.212 3.68357
28.5118 109.616 -1.61018
30.5283 107.144 -1.54927
34.196 114.779 3.92276
35.5329 113.346 2.93599
23.9001 110.832 -0.393874
25.1986 108.402 -1.5316
36.4908 113.735 5.30227
36.2682 113.218 2.88635
25.9233 109.622 -1.65538
23.7949 119.178 9.7732
24.2161 114.804 10.2215
25.8914 117.709 0.477456
28.9169 107.487 -0.2574
21.2373 116.871 7.41569
26.1041 112.854 -0.4889
26.4046 111.97 -1.81182
28.301 104.324 -1.48115
28.5037 103.775 -1.49051
28.8183 102.401 -1.4779
29.0028 102.262 -1.47955
28.8346 104.74 -1.48248
29.1417 103.75 -1.49166
29.3286 102.527 -1.46224
29.1882 102.201 -1.466
29.3614 107.184 -1.52371
29.6599 104.507 -1.53193
29.6248 103.294 -1.47251
29.6126 102.596 -1.48138
30.3269 106.081 -1.56306
21.3575 105.751 -0.166294
30.0645 103.876 -1.53423
29.8714 102.757 -1.47962
21.2094 105.417 -1.11349
29.7361 102.411 -1.47948
23.9018 103.755 -1.32808
25.2217 102.833 -1.39309
30.5899 105.878 -1.58457
30.2392 103.503 -1.47803
26.3034 101.917 -1.47566
30.0595 102.819 -1.49763
30.0303 102.313 -1.4657
20.4239 106.834 -0.220679
34.3788 115.007 4.6979
21.2293 106.772 -1.36924
33.2225 114.673 2.00474
24.554 103.585 -1.32291
26.0088 102.592 -1.47696
32.9886 113.416 -1.84005
31.3682 106.693 -1.58586
26.7765 101.965 -1.44128
30.7244 104.008 -1.50085
27.1766 101.648 -1.44912
34.6202 113.501 4.76467
34.4581 114.208 3.53714
35.6402 115.774 0.953086
35.5261 114.637 -1.60861
32.4899 107.368 -1.48729
32.369 106.869 -1.57639
20.9823 107.612 -0.254211
30.6699 102.829 -1.49606
21.9234 107.249 -1.25572
30.5256 102.493 -1.48758
24.931 104.086 -1.38987
26.3998 102.516 -1.43977
36.7231 115.306 5.53724
26.8315 102.285 -1.4591
34.0588 109.564 -1.51186
32.463 106.569 -1.60716
20.3837 110.292 -0.345014
31.9669 104.794 -1.67296
21.3839 109.249 -1.54387
25.1508 104.309 -1.49187
30.8383 102.488 -1.49892
26.8276 102.591 -1.48493
32.9055 106.274 -0.981227
27.4967 102.031 -1.45745
30.9591 102.474 -1.4934
27.6222 101.874 -1.45523
21.6285 109.625 -1.33264
24.8893 105.491 -1.35277
26.5246 103.937 -1.46919
27.3823 102.637 -1.44736
27.4645 102.573 -1.48419
25.2244 106.352 -1.52517
26.833 103.838 -1.46057
27.6639 102.917 -1.4632
27.9283 102.519 -1.45745
28.1302 101.83 -1.45066
27.3489 104.245 -1.47759
27.9008 103.644 -1.46619
28.3566 102.544 -1.48008
28.4842 102.108 -1.46215
28.2137 104.191 -1.50489
28.4346 102.916 -1.43902
28.5677 102.779 -1.47945
19.6819 112.802 -0.00716545
32.0172 114.489 -0.558062
26.1428 109.834 -1.46413
23.7949 119.178 9.7732
21.2373 116.871 7.41569
33.88 115.785 -1.62558
25.8381 112.714 -1.58799
32.8819 114.439 2.11074
24.234 109.013 -1.26135
31.6385 111.962 -1.72676
34.4874 113.652 2.01272
30.5283 107.144 -1.54927
34.196 114.779 3.92276
23.9001 110.832 -0.393874
25.1986 108.402 -1.5316
36.2682 113.218 2.88635
25.9233 109.622 -1.65538
26.1041 112.854 -0.4889
34.3788 115.007 4.6979
33.2225 114.673 2.00474
32.9886 113.416 -1.84005
35.5261 114.637 -1.60861
21.3839 109.249 -1.54387
19.6819 112.802 -0.00716545
32.0172 114.489 -0.558062
27.4749 108.892 -1.54318
28.4208 105.254 -1.53382
21.3702 105.792 -1.28007
28.6056 104.213 -1.50044
28.716 103.229 -1.47541
28.4744 109.644 -1.63075
28.7263 105.942 -1.51539
29.0532 104.002 -1.5033
29.137 103.785 -1.49898
21.2852 106.343 -0.188304
29.5761 107.453 -1.52136
20.8881 106.503 -1.36857
29.5119 107.206 -1.60872
29.2906 104.5 -1.51638
23.8069 104.334 -1.34384
29.3642 103.36 -1.48932
24.9495 103.544 -1.37803
30.0238 108.115 -1.54103
26.6383 102.541 -1.47078
30.0846 106.693 -1.61128
29.6953 104.661 -1.50652
29.6718 103.853 -1.52168
20.967 107.352 -0.950276
29.673 103.322 -1.49452
21.0358 107.726 -1.42318
30.0997 104.614 -1.51179
24.9413 104.071 -1.39826
30.1667 103.8 -1.52357
25.2943 103.697 -1.43227
30.051 103.348 -1.50689
34.0969 115.51 6.25525
33.9364 115.476 4.70505
34.1575 115.605 3.64624
31.2396 106.803 -1.57123
30.5739 104.418 -1.52017
30.1115 103.238 -1.51033
21.2744 108.092 -0.245383
34.3838 114.682 3.00192
21.0717 108.08 -1.42451
34.166 113.807 -1.74402
24.593 104.851 -1.35606
31.7742 106.958 -1.60071
26.131 103.642 -1.48864
26.8158 103.108 -1.47535
30.3839 103.24 -1.50812
27.3141 102.544 -1.48143
35.2395 113.423 4.9193
20.9001 109.664 -0.278543
34.7651 113.033 3.42649
24.9476 105.278 -1.43213
35.3375 112.843 2.82778
26.8609 103.605 -1.44914
35.9336 114.084 1.07398
27.2775 102.984 -1.47257
34.8599 111.893 -1.48907
27.6141 102.533 -1.47559
32.3843 106.944 -1.57653
30.8137 103.782 -1.51544
30.8707 103.527 -1.51987
20.0121 112.86 -0.41083
23.9091 108.51 -1.44065
25.3508 105.84 -1.5026
26.8348 103.844 -1.46588
27.5448 102.982 -1.48419
35.5228 112.506 1.61417
26.4563 105.822 -1.49267
27.116 104.348 -1.49378
27.7346 103.162 -1.48201
28.0523 102.762 -1.47481
25.5648 109.797 -0.451752
25.4737 109.219 -1.45024
26.8365 105.824 -1.52875
27.8965 103.698 -1.4873
28.1137 103.123 -1.49595
28.335 102.767 -1.47461
28.0213 105.271 -1.47451
28.297 104.337 -1.49277
28.5312 103.286 -1.47568
28.5879 102.768 -1.48284
22.0691 116.529 10.7371
23.2211 119.644 8.73922
21.197 117.763 12.6995
21.153 116.558 9.8725
23.7452 121.293 8.83285
14.2453 117.061 10.7103
25.1364 158.47 14.6628
20.021 115.406 8.68833
19.5504 116.073 0.275986
22.2786 119.373 8.29155
24.1391 120.761 8.31931
23.3412 131.085 -0.192422
18.4957 116.196 6.886
26.1428 109.834 -1.46413
25.8381 112.714 -1.58799
32.8819 114.439 2.11074
31.6385 111.962 -1.72676
34.4874 113.652 2.01272
34.3788 115.007 4.6979
33.2225 114.673 2.00474
34.166 113.807 -1.74402
35.2395 113.423 4.9193
34.7651 113.033 3.42649
27.4749 108.892 -1.54318
22.0691 116.529 10.7371
23.2211 119.644 8.73922
21.197 117.763 12.6995
21.153 116.558 9.8725
23.7452 121.293 8.83285
14.2453 117.061 10.7103
25.1364 158.47 14.6628
20.021 115.406 8.68833
19.5504 116.073 0.275986
22.2786 119.373 8.29155
24.1391 120.761 8.31931
23.3412 131.085 -0.192422
18.4957 116.196 6.886
28.3905 106.249 -1.52514
28.4893 105.465 -1.52338
28.6591 104.62 -1.50081
28.6673 104.364 -1.51784
27.993 112.009 -1.62137
28.5953 106.781 -1.50275
28.6601 105.953 -1.55081
28.8863 104.56 -1.51482
29.0207 104.133 -1.50987
29.6615 111.403 -1.71139
29.4176 107.205 -1.57587
29.1458 105.578 -1.53746
29.1583 104.681 -1.51294
29.1474 104.24 -1.51497
31.3782 117.87 9.49893
30.3044 109.122 -1.55398
21.3928 107.185 -0.272042
30.0237 108.014 -1.51821
29.6548 106.029 -1.54189
29.6356 104.73 -1.5277
21.4251 107.525 -1.06556
29.5965 104.555 -1.55227
23.743 105.576 -1.3876
30.5001 108.569 -1.65947
30.1179 106.371 -1.61216
29.7757 104.883 -1.53129
29.677 104.308 -1.51441
26.0733 104.106 -1.51552
32.0993 112.288 -1.72229
26.6641 103.564 -1.48842
30.6394 107.223 -1.62724
30.7372 106.518 -1.60277
30.0517 104.927 -1.54124
29.9877 104.485 -1.52895
33.5177 114 3.3805
33.5819 114.115 2.29792
34.0318 115.642 1.32
34.1786 115.206 0.26257
21.3604 108.054 -0.201999
31.1743 107.106 -1.52519
30.6429 105.635 -1.54079
21.3068 108.271 -1.40079
30.6647 105.472 -1.57778
25.0112 105.208 -1.39628
34.2795 112.58 4.30849
25.7186 104.76 -1.50556
35.8041 115.762 0.983117
26.4985 103.995 -1.50774
35.284 114.391 -1.78581
31.5058 106.768 -1.49133
31.162 105.901 -1.57709
26.7769 103.906 -1.50926
30.8138 105.254 -1.56243
35.9239 114.355 6.00284
21.7486 109.448 -0.300609
35.643 113.794 0.596191
21.2448 109.889 -1.43165
24.7634 106.1 -1.38507
31.8768 106.802 -1.57221
25.7091 105.055 -1.51541
26.551 104.31 -1.50822
27.1644 103.706 -1.49321
21.2607 110.903 -0.308227
21.1988 110.624 -1.5198
25.3548 106.094 -1.5318
26.7891 104.659 -1.46431
27.02 104.144 -1.50935
27.4791 103.773 -1.49877
21.365 112.79 -0.495949
24.3712 108.811 -1.23723
25.3304 106.777 -1.52795
27.1244 104.86 -1.52394
27.3076 104.256 -1.49996
27.5397 104.015 -1.50758
21.3031 116.332 8.19806
24.1924 110.283 -0.390019
25.3854 108.142 -1.43434
26.5208 106.111 -1.51087
27.4588 105.1 -1.51823
27.7997 104.457 -1.50344
27.9805 103.986 -1.50268
25.8355 110.312 -0.484786
26.0468 109.569 -1.53288
27.2932 106.188 -1.54822
27.4711 105.304 -1.50731
27.8987 104.441 -1.50232
24.116 117.084 8.98989
25.9513 111.229 -0.451418
27.5584 106.81 -1.55589
27.95 105.16 -1.52264
28.2992 104.405 -1.5177
28.3404 104.263 -1.51742
31.093 118.284 8.5142
38.2297 118.684 -1.08817
19.177 116.189 2.6645
26.1428 109.834 -1.46413
23.2211 119.644 8.73922
21.153 116.558 9.8725
23.7452 121.293 8.83285
14.2453 117.061 10.7103
19.5504 116.073 0.275986
23.3412 131.085 -0.192422
31.6385 111.962 -1.72676
34.4874 113.652 2.01272
34.3788 115.007 4.6979
33.2225 114.673 2.00474
34.166 113.807 -1.74402
34.7651 113.033 3.42649
34.0318 115.642 1.32
35.284 114.391 -1.78581
35.643 113.794 0.596191
21.2607 110.903 -0.308227
21.365 112.79 -0.495949
25.8355 110.312 -0.484786
26.0468 109.569 -1.53288
24.116 117.084 8.98989
25.9513 111.229 -0.451418
29.6615 111.403 -1.71139
29.4176 107.205 -1.57587
24.1924 110.283 -0.390019
31.093 118.284 8.5142
38.2297 118.684 -1.08817
19.177 116.189 2.6645
33.849 114.698 -0.696712
37.5728 120.984 -1.11911
27.5606 110.575 -1.59293
28.184 107.383 -1.55955
28.3861 106.292 -1.5317
28.5261 105.832 -1.54899
28.6311 105.257 -1.5413
28.2448 113.446 -1.64023
28.452 108.697 -1.58761
28.9159 106.44 -1.55608
28.7406 105.984 -1.53835
28.9399 105.238 -1.53779
20.452 109.602 -0.270897
29.4919 108.399 -1.54774
20.9671 108.948 -1.47226
29.0627 105.676 -1.53427
24.2866 106.438 -1.39158
29.1273 105.488 -1.54595
30.4814 110.929 -1.64099
30.0266 108.209 -1.56552
24.9533 106.116 -1.41748
29.77 107.161 -1.57658
29.3831 105.781 -1.56958
32.6733 119.789 7.44216
30.6725 109.36 -1.71913
29.9721 107.332 -1.54948
29.7036 105.769 -1.53814
29.6602 105.367 -1.54193
21.351 110.004 -1.41207
24.1243 107.16 -1.43846
25.3214 106.145 -1.5477
34.236 117.214 -1.74856
26.4078 105.23 -1.52788
31.8139 112.042 -1.70993
30.9601 109.334 -1.68036
26.7049 104.841 -1.513
30.3335 106.969 -1.5252
30.1237 105.88 -1.55803
30.0675 105.652 -1.5809
34.0235 113.989 6.11811
34.6095 116.026 4.23221
21.7016 110.76 -1.34252
25.2865 106.78 -1.52623
34.0897 115.018 2.48589
26.0673 105.919 -1.52073
34.0471 114.949 0.199573
26.6911 105.177 -1.51503
33.9211 114.755 -1.69445
31.3183 108.198 -1.59054
27.1368 104.841 -1.51533
30.8955 107.4 -1.60891
30.3115 106.068 -1.57038
30.219 105.619 -1.55104
18.7569 116.541 4.48837
24.2751 108.996 -1.28352
35.122 114.135 5.46509
25.1536 107.756 -1.42588
26.3175 106.048 -1.51112
35.0639 114.599 4.57184
27.0212 105.333 -1.52271
34.195 113.713 2.92435
35.0824 114.518 0.898595
31.2505 107.278 -1.58729
30.8344 106.404 -1.5513
20.342 117.349 9.91913
30.53 105.555 -1.56507
25.195 108.983 -1.41423
35.4041 114.372 -1.61681
25.4018 108.236 -1.52589
31.2514 106.715 -1.5173
26.8022 106.018 -1.50822
27.4678 105.3 -1.50518
27.5405 105.078 -1.51634
25.6444 108.997 -0.743196
25.7796 109.537 -1.48184
26.8376 107.299 -1.5426
27.0014 106.631 -1.52323
27.723 105.564 -1.5235
27.8491 105.134 -1.51587
27.2236 107.344 -1.53794
27.5466 106.281 -1.54363
27.8926 105.52 -1.51076
28.0063 105.34 -1.54018
25.8688 112.773 -0.447844
26.0434 112.65 -1.58145
27.8446 107.53 -1.56687
28.1048 106.312 -1.51529
28.3055 105.523 -1.52558
28.3956 105.263 -1.53314
26.1428 109.834 -1.46413
29.0818 113.405 -0.486129
37.5728 120.984 -1.11911
19.177 116.189 2.6645
23.2211 119.644 8.73922
21.153 116.558 9.8725
23.7452 121.293 8.83285
19.5504 116.073 0.275986
23.3412 131.085 -0.192422
34.166 113.807 -1.74402
34.0318 115.642 1.32
35.284 114.391 -1.78581
25.8355 110.312 -0.484786
24.116 117.084 8.98989
25.9513 111.229 -0.451418
34.236 117.214 -1.74856
34.0897 115.018 2.48589
33.9211 114.755 -1.69445
35.0824 114.518 0.898595
25.195 108.983 -1.41423
25.7796 109.537 -1.48184
25.8688 112.773 -0.447844
26.0434 112.65 -1.58145
26.0468 109.569 -1.53288
21.351 110.004 -1.41207
26.1428 109.834 -1.46413
29.0818 113.405 -0.486129
20.8454 111.05 -0.286073
20.9627 118.904 10.6121
26.886 118.584 8.62658
28.0127 112.456 -1.71055
28.1657 109.209 -1.57991
28.3066 108.042 -1.58511
28.5564 106.618 -1.53685
29.0311 118.121 6.61301
28.399 113.778 -1.69245
28.6821 109.303 -1.55573
28.7362 107.434 -1.53257
28.8724 107.188 -1.57245
28.8865 106.46 -1.55061
30.4426 118.339 6.79236
29.7638 113.524 -1.62967
29.2262 109.299 -1.60282
29.2731 107.529 -1.59988
29.0948 107.005 -1.54572
29.2034 106.592 -1.56183
21.2049 109.923 -1.44306
32.0225 118.727 8.80981
30.1122 111.132 -1.64861
29.6765 108.699 -1.57917
29.7068 107.795 -1.59811
29.4367 107.259 -1.57929
33.0198 120.511 7.76915
31.0198 111.503 -1.62611
30.7777 110.138 -1.59956
30.0747 108.378 -1.61394
29.7021 106.966 -1.56616
32.9637 114.647 2.09248
33.4772 115.71 0.966108
31.7863 111.885 -1.70101
30.818 109.035 -1.60018
30.3215 107.586 -1.53769
24.5639 107.602 -1.4217
30.1696 107.041 -1.56105
24.7902 107.279 -1.41737
34.2969 115.082 4.74313
26.0035 106.453 -1.5252
34.0465 115.008 0.22162
31.5373 109.446 -1.64325
30.9071 107.871 -1.607
26.4233 105.951 -1.53753
30.5522 107.348 -1.5859
30.1552 106.58 -1.56621
34.735 114.645 4.97985
20.5021 112.182 -0.318061
34.7585 114.556 4.56294
34.115 113.722 3.38584
21.5713 110.95 -1.37457
34.1408 113.874 1.75121
34.7829 114.853 0.511774
31.1428 108.089 -1.59454
24.7719 107.9 -1.42632
30.9062 107.479 -1.63781
25.2697 107.247 -1.48213
26.3493 106.483 -1.53361
26.6485 105.979 -1.52578
18.9536 115.764 1.49827
21.4991 112.178 -0.298839
24.3137 108.942 -1.2547
25.2951 108.244 -1.4552
25.9953 107.314 -1.55747
26.5708 106.513 -1.52244
26.924 106.267 -1.54747
19.1224 116.464 4.06499
23.7983 111.027 -0.383184
26.4868 107.271 -1.54675
26.9971 106.649 -1.51463
27.3197 106.172 -1.52167
25.116 109.822 -0.440785
25.642 108.989 -0.794549
26.9003 107.187 -1.48582
27.3894 106.53 -1.53607
27.447 106.191 -1.53826
27.2329 107.507 -1.53207
27.5941 106.754 -1.53598
27.2779 108.809 -1.57333
27.3772 107.966 -1.56188
27.8495 106.596 -1.53634
28.1104 106.227 -1.52345
26.746 112.518 -1.75586
27.4694 109.017 -1.56385
28.1935 107.365 -1.55744
28.1872 106.587 -1.54874
28.3647 106.327 -1.53961
17.7823 116.965 -0.0708335
20.6051 116.905 7.62293
21.214 118.997 8.79034
27.1435 114.653 -0.548544
37.6621 120.622 -1.14067
19.3249 118.058 9.34148
20.2336 115.367 6.36295
24.447 120.8 8.35645
37.5728 120.984 -1.11911
19.177 116.189 2.6645
23.2211 119.644 8.73922
23.7452 121.293 8.83285
23.3412 131.085 -0.192422
34.166 113.807 -1.74402
35.284 114.391 -1.78581
24.116 117.084 8.98989
34.0897 115.018 2.48589
33.9211 114.755 -1.69445
25.8688 112.773 -0.447844
26.0434 112.65 -1.58145
28.0127 112.456 -1.71055
28.399 113.778 -1.69245
29.7638 113.524 -1.62967
30.1122 111.132 -1.64861
31.0198 111.503 -1.62611
31.7863 111.885 -1.70101
34.2969 115.082 4.74313
34.735 114.645 4.97985
34.7585 114.556 4.56294
34.7829 114.853 0.511774
19.1224 116.464 4.06499
25.642 108.989 -0.794549
26.746 112.518 -1.75586
17.7823 116.965 -0.0708335
20.6051 116.905 7.62293
21.214 118.997 8.79034
27.1435 114.653 -0.548544
37.6621 120.622 -1.14067
19.3249 118.058 9.34148
20.2336 115.367 6.36295
24.447 120.8 8.35645
27.6056 118.978 7.09055
28.1456 110.288 -1.58131
28.4742 108.279 -1.56977
28.4439 107.578 -1.55877
28.7289 110.047 -1.61544
28.7539 108.883 -1.57272
28.7396 107.497 -1.53993
28.8891 107.162 -1.5524
29.4139 109.426 -1.5646
29.1335 108.84 -1.579
29.0758 107.516 -1.52634
32.2309 119.488 7.35332
30.6943 113.757 -1.66279
29.6835 108.679 -1.56373
29.5591 107.788 -1.58087
21.6611 110.893 -0.268779
29.4306 107.225 -1.53347
21.3421 110.826 -1.42387
23.6786 108.999 -1.42047
30.3948 109.584 -1.62868
30.0614 108.364 -1.58389
25.0739 107.886 -1.44676
29.6724 107.75 -1.52579
25.3933 107.493 -1.54663
29.6723 107.245 -1.54235
35.6638 121.406 8.64778
32.811 114.141 2.11308
21.4758 112.304 -0.63359
33.4939 115.949 1.19332
24.1709 109.091 -0.990478
24.2186 109.054 -1.2482
31.5815 111.347 -1.76062
25.2964 108.116 -1.54419
30.4944 109.229 -1.62136
26.0131 107.31 -1.52658
30.01 107.708 -1.59619
26.8098 106.794 -1.54165
29.928 107.435 -1.54418
18.8557 116.475 1.89335
24.4003 110.074 -0.344397
